6.545008673899672669e-01 -6.008504690402245885e+00 8.429999999999999716e+00
7.518903309018147851e-01 -5.983699602277537721e+00 8.429999999999999716e+00
8.492797944136623034e-01 -5.958894514152829558e+00 8.429999999999999716e+00
9.261480493259697244e-01 -5.877707868780967182e+00 8.429999999999999716e+00
9.970395794636744968e-01 -5.809338351050221227e+00 8.419999999999999929e+00
1.091008841542265628e+00 -5.775136336717654473e+00 8.419999999999999929e+00
1.191818506487369866e+00 -5.759728174800805789e+00 8.429999999999999716e+00
1.298604896207076420e+00 -5.731502885242841572e+00 8.429999999999999716e+00
1.392574158285667218e+00 -5.697300870910274817e+00 8.429999999999999716e+00
1.486543420364258017e+00 -5.663098856577708062e+00 8.429999999999999716e+00
1.577092481009592317e+00 -5.619499916037280940e+00 8.429999999999999716e+00
1.667641541654926396e+00 -5.575900975496854706e+00 8.429999999999999716e+00
1.738533071792631279e+00 -5.507531457766108751e+00 8.429999999999999716e+00
1.818821528138195642e+00 -5.435741738602105855e+00 8.419999999999999929e+00
1.909370588783529499e+00 -5.392142798061679621e+00 8.419999999999999929e+00
2.013600455161890679e+00 -5.386131562352689528e+00 8.429999999999999716e+00
2.107569717240481477e+00 -5.351929548020122773e+00 8.429999999999999716e+00
2.201538979319072276e+00 -5.317727533687556019e+00 8.429999999999999716e+00
2.292088039964406576e+00 -5.274128593147130672e+00 8.429999999999999716e+00
2.382637100609740877e+00 -5.230529652606704438e+00 8.429999999999999716e+00
2.476606362688331675e+00 -5.196327638274137684e+00 8.429999999999999716e+00
2.567155423333665532e+00 -5.152728697733711449e+00 8.429999999999999716e+00
2.654284282545742890e+00 -5.099732830985427512e+00 8.429999999999999716e+00
2.741413141757820249e+00 -5.046736964237140910e+00 8.429999999999999716e+00
2.825121799536641110e+00 -4.984344171280997493e+00 8.429999999999999716e+00
2.908830457315461970e+00 -4.921951378324853188e+00 8.419999999999999929e+00
2.976301786019910356e+00 -4.844184934386247754e+00 8.419999999999999929e+00
1.336608541715620380e+00 -1.333258266883368348e+00 1.314000000000000057e+01
-7.571020890849203155e+00 -3.904938241550681699e+00 1.061999999999999922e+01
4.246131931915517299e+00 8.754208569249333216e-02 1.083999999999999986e+01
4.065724934044824934e+00 5.539681946521912703e-01 1.083999999999999986e+01
-4.082413619462922583e+00 -7.700675232706782225e+00 1.175999999999999979e+01
-4.522341795048476776e+00 -7.924646660183514157e+00 1.175999999999999979e+01
-7.709314727822584423e+00 -4.285168191258987846e+00 1.131000000000000050e+01
-3.117776962082526637e+00 -5.029668658540784598e+00 1.166000000000000014e+01
3.640755373496853853e+00 -1.143765845946531190e+00 1.194999999999999929e+01
4.016080246861021941e+00 8.657941156953629092e-01 1.069999999999999929e+01
3.757766951849712989e+00 -3.921248211422750707e+00 8.390000000000000568e+00
3.834635206762020410e+00 -3.840061566050887887e+00 8.380000000000000782e+00
3.908946938332981791e+00 -3.781088974528000524e+00 8.380000000000000782e+00
2.639982279993746239e+00 -2.955299233803410086e+00 1.153999999999999915e+01
2.146263581436769652e+00 -3.294624810050184038e+00 1.168999999999999950e+01
9.879205501953742807e-01 -9.600067637791251940e-01 1.316999999999999993e+01
-1.175273293200203906e+00 -3.992760033647194895e+00 1.180000000000000071e+01
2.936415039274264949e-02 -3.969337192362437428e+00 1.182000000000000028e+01
-8.766096091420199077e-01 -2.766668681494023119e+00 1.261999999999999922e+01
-3.058078736205277259e+00 -4.667403394090673174e+00 1.192999999999999972e+01
1.619276473240141900e+00 -9.111222218840717701e-01 1.308999999999999986e+01
4.219357911066277111e+00 1.067482467454345718e+00 1.015000000000000036e+01
-4.411271525803602600e+00 -7.937429276890242136e+00 1.246000000000000085e+01
-7.136482754153669283e+00 -5.683582840046168982e+00 9.830000000000000071e+00
4.347460165608660887e+00 1.241809207747275101e+00 9.599999999999999645e+00
-4.609470654260554134e+00 -7.977642526931798983e+00 1.302999999999999936e+01
-6.302504874657001821e+00 -3.209117060022075307e+00 1.558000000000000007e+01
1.374782932431639182e+00 -3.309376359481445373e+00 1.225000000000000000e+01
4.839070982971326096e+00 3.730980789187743341e-02 9.449999999999999289e+00
1.206501938782086780e+00 -3.402550965336899047e+00 1.224000000000000021e+01
-3.462145658410987537e+00 -1.919908185290628122e+00 1.682000000000000028e+01
-3.549274517623064895e+00 -1.972904052038912948e+00 1.682000000000000028e+01
-4.088354928570907099e+00 -4.935975483937291131e+00 1.541999999999999993e+01
2.034641137241699482e+00 -1.409090289031828869e+00 1.294999999999999929e+01
-4.686268982571856867e+00 -5.398359289912532333e+00 1.550000000000000000e+01
-2.937265526676441141e+00 -2.952671879128828891e+00 1.278999999999999915e+01
2.017436597272254772e+00 -1.010964675934103330e+00 1.296000000000000085e+01
1.205777209159955232e+00 -9.445640909278893993e-01 1.316000000000000014e+01
2.439400087599615130e+00 -7.083976373612418387e-01 1.274000000000000021e+01
2.530812826336860777e+00 -6.964096768776498747e-01 1.269999999999999929e+01
1.019323559913654309e+00 -3.151424992000437353e+00 1.248000000000000043e+01
-6.026505696059287764e+00 -6.247986003134526456e+00 1.522000000000000064e+01
1.819945008525052366e-01 -5.850587833855623643e+00 8.800000000000000711e+00
-5.018720549749961179e+00 -7.935045308220832538e+00 1.190000000000000036e+01
-4.183499371883124596e+00 -6.779707442467817202e+00 8.470000000000000639e+00
-4.069872579296903936e+00 -6.770276005325570168e+00 8.470000000000000639e+00
-3.972483115785056640e+00 -6.745470917200863781e+00 8.470000000000000639e+00
-3.878513853706466286e+00 -6.711268902868296138e+00 8.470000000000000639e+00
-3.791384994494388039e+00 -6.658273036120011312e+00 8.470000000000000639e+00
-3.704256135282311124e+00 -6.605277169371726487e+00 8.470000000000000639e+00
-3.617127276070233322e+00 -6.552281302623440773e+00 8.470000000000000639e+00
-3.533418618291413349e+00 -6.489888509667296468e+00 8.470000000000000639e+00
-3.439449356212822106e+00 -6.455686495334729713e+00 8.470000000000000639e+00
-3.338639691267717424e+00 -6.440278333417881917e+00 8.470000000000000639e+00
-3.234409824889356688e+00 -6.434267097708892713e+00 8.480000000000000426e+00
-3.120783032303137361e+00 -6.424835660566645679e+00 8.480000000000000426e+00
-3.023393568791289177e+00 -6.400030572441938403e+00 8.480000000000000426e+00
-2.929424306712697934e+00 -6.365828558109370761e+00 8.480000000000000426e+00
-2.835455044634107580e+00 -6.331626543776804894e+00 8.480000000000000426e+00
-2.744905983988774167e+00 -6.288027603236377772e+00 8.480000000000000426e+00
-2.654356923343438979e+00 -6.244428662695951537e+00 8.480000000000000426e+00
-2.573204788905964158e+00 -6.204249923588783133e+00 8.480000000000000426e+00
-2.489496131127143741e+00 -6.141857130632638828e+00 8.480000000000000426e+00
-2.402367271915065938e+00 -6.088861263884354003e+00 8.480000000000000426e+00
-2.325499017002758961e+00 -6.007674618512490738e+00 8.480000000000000426e+00
-2.252050963523707594e+00 -5.917091046932769771e+00 8.470000000000000639e+00
-2.194840239119029590e+00 -5.811133824370586787e+00 8.470000000000000639e+00
-2.120528507548067765e+00 -5.752161232847699424e+00 8.470000000000000639e+00
-2.047080454069016842e+00 -5.661577661267978456e+00 8.460000000000000853e+00
-1.956531393423682763e+00 -5.617978720727552222e+00 8.460000000000000853e+00
-1.845461124178809031e+00 -5.630761337434281089e+00 8.470000000000000639e+00
-1.731834331592588594e+00 -5.621329900292034942e+00 8.470000000000000639e+00
-1.634444868080741076e+00 -5.596524812167326779e+00 8.470000000000000639e+00
-1.540475606002150277e+00 -5.562322797834760024e+00 8.470000000000000639e+00
-1.462743672997931510e+00 -5.512747132519731252e+00 8.470000000000000639e+00
-1.385875418085624533e+00 -5.431560487147869765e+00 8.470000000000000639e+00
-1.325244492247689365e+00 -5.335000190793545372e+00 8.460000000000000853e+00
-1.255216640201895606e+00 -5.235019693005964925e+00 8.460000000000000853e+00
-1.171507982423074967e+00 -5.172626900049820620e+00 8.460000000000000853e+00
-1.070698317477970507e+00 -5.157218738132971936e+00 8.460000000000000853e+00
-9.596280482330958872e-01 -5.170001354839700802e+00 8.460000000000000853e+00
-7.887215093734234461e-01 -5.288706683174225098e+00 8.480000000000000426e+00
-9.011377050593994964e-01 -7.110912997079059661e-01 1.289000000000000057e+01
-7.652968586242046012e-01 -7.042163859070054155e-01 1.292999999999999972e+01
-7.714531307308435615e+00 -3.978455316898506844e+00 9.949999999999999289e+00
-7.903886589239955462e+00 -5.037060331625262677e+00 1.282000000000000028e+01
-1.520290577498639717e-03 -6.390600040031921836e-01 1.308000000000000007e+01
1.343205558576962555e-01 -6.321850902022915220e-01 1.310999999999999943e+01
5.237730676374638961e-01 -5.970951496505195522e+00 8.560000000000000497e+00
6.314231354490813519e-01 -5.974337187004065797e+00 8.560000000000000497e+00
7.416297266020444034e-01 -5.955508823653960171e+00 8.560000000000000497e+00
8.390191901138923658e-01 -5.930703735529252896e+00 8.560000000000000497e+00
9.133309216848539691e-01 -5.871731144006365533e+00 8.560000000000000497e+00
9.970395794636744968e-01 -5.809338351050221227e+00 8.560000000000000497e+00
1.094429042975522126e+00 -5.784533262925513064e+00 8.560000000000000497e+00
1.191818506487369866e+00 -5.759728174800805789e+00 8.570000000000000284e+00
1.282367567132703723e+00 -5.716129234260378666e+00 8.570000000000000284e+00
1.376336829211294521e+00 -5.681927219927811912e+00 8.570000000000000284e+00
1.466885889856628822e+00 -5.638328279387386566e+00 8.570000000000000284e+00
1.560855151935219620e+00 -5.604126265054819811e+00 8.570000000000000284e+00
1.654824414013810419e+00 -5.569924250722253056e+00 8.570000000000000284e+00
1.738533071792631279e+00 -5.507531457766108751e+00 8.570000000000000284e+00
1.818821528138195642e+00 -5.435741738602105855e+00 8.560000000000000497e+00
1.916210991650043161e+00 -5.410936650477398580e+00 8.560000000000000497e+00
2.013600455161890679e+00 -5.386131562352689528e+00 8.570000000000000284e+00
2.104149515807224979e+00 -5.342532621812264182e+00 8.570000000000000284e+00
2.194698576452558836e+00 -5.298933681271837948e+00 8.570000000000000284e+00
2.285247637097892692e+00 -5.255334740731411713e+00 8.570000000000000284e+00
2.379216899176483935e+00 -5.221132726398844959e+00 8.570000000000000284e+00
2.469765959821818235e+00 -5.177533785858419613e+00 8.570000000000000284e+00
2.560315020467152092e+00 -5.133934845317994267e+00 8.570000000000000284e+00
2.650864081112486392e+00 -5.090335904777568032e+00 8.570000000000000284e+00
2.737992940324563751e+00 -5.037340038029282319e+00 8.570000000000000284e+00
2.825121799536641110e+00 -4.984344171280997493e+00 8.560000000000000497e+00
2.899433531107602935e+00 -4.925371579758110130e+00 8.560000000000000497e+00
2.979721987453166854e+00 -4.853581860594107233e+00 8.560000000000000497e+00
3.060010443798731217e+00 -4.781792141430104337e+00 8.560000000000000497e+00
-1.998678160523154057e+00 -1.759711797609989414e+00 1.258999999999999986e+01
3.851737118660534254e+00 -9.924823266601008331e-01 1.174000000000000021e+01
-1.849087486486158394e+00 -2.024518576679478876e+00 1.261999999999999922e+01
-4.736778252579801674e+00 -7.949486259242608099e+00 1.175000000000000000e+01
4.914211881699810824e+00 1.817184133774079058e-01 8.619999999999999218e+00
-2.950359646524884916e+00 -4.904883072628496876e+00 1.166000000000000014e+01
-2.668451860289112965e+00 -4.802277029630795724e+00 1.166000000000000014e+01
-2.477093134698674426e+00 -4.743269927173520806e+00 1.166000000000000014e+01
3.727848817042313634e+00 -3.868286855608852992e+00 8.519999999999999574e+00
3.808137273387877997e+00 -3.796497136444849207e+00 8.519999999999999574e+00
3.891845931166698414e+00 -3.734104343488704902e+00 8.519999999999999574e+00
3.972134387512262776e+00 -3.662314624324701562e+00 8.509999999999999787e+00
2.062554923657948791e+00 -3.357017603006327899e+00 1.168999999999999950e+01
-3.898722654432060342e+00 -1.919182550936265885e+00 1.283999999999999986e+01
-6.491963689391682557e+00 -3.916581092690401444e+00 1.553999999999999915e+01
3.773314966968571493e+00 1.298881888414404440e+00 1.069999999999999929e+01
1.370142182043603274e-01 -3.972722882861305926e+00 1.183000000000000007e+01
4.637244587474794066e+00 7.087754481750402347e-01 9.320000000000000284e+00
1.287654073219561823e+00 -3.362372226229730199e+00 1.224000000000000021e+01
-2.074718153010168376e+00 -4.650026299449292466e+00 1.152999999999999936e+01
-3.140481918274118378e-02 -3.597709512638854079e+00 1.223000000000000043e+01
-4.324142666591525241e+00 -7.884433410141957310e+00 1.246000000000000085e+01
4.860559402465938206e+00 -4.018237114705409674e-01 9.730000000000000426e+00
4.425261120481652988e+00 1.057290885023350224e+00 9.599999999999999645e+00
-4.532602399348247602e+00 -7.896455881559937495e+00 1.302999999999999936e+01
4.553397885958424318e+00 1.114570631296802894e+00 8.619999999999999218e+00
-2.244725598111312337e+00 -1.785415074760995591e+00 1.255000000000000071e+01
-5.266460832587553931e+00 -8.014573619277648220e+00 1.231000000000000050e+01
4.934974666840062696e+00 -6.939921020060828560e-01 9.439999999999999503e+00
-6.773768847556523198e+00 -7.264891988176614745e+00 1.269999999999999929e+01
2.998758321141826499e+00 -2.771506545433847002e+00 1.140000000000000036e+01
-4.790637797419996957e+00 -7.830746419973697137e+00 1.358999999999999986e+01
-4.931557179603496266e+00 -7.999096435492024426e+00 1.231000000000000050e+01
1.652752853218346862e+00 -1.441668479983735374e+00 1.307000000000000028e+01
-4.567148618292455886e+00 -3.737452808856496222e+00 1.553999999999999915e+01
4.110601683889807845e+00 -9.727557742836967503e-01 1.138000000000000078e+01
2.112269537442756473e+00 -1.008373641658370179e+00 1.292999999999999972e+01
1.319404001746175226e+00 -9.351326537856431420e-01 1.315000000000000036e+01
-1.713246640050963165e+00 -2.017643662878578326e+00 1.266000000000000014e+01
-2.086877763433466093e+00 -1.078814720184580578e+00 1.252999999999999936e+01
2.357384275070229407e+00 -7.169653964115769718e-01 1.278999999999999915e+01
-4.177495374031977571e-01 -3.004044827228684156e+00 1.258999999999999986e+01
-7.952080007715032650e+00 -3.852080418539945317e+00 1.252999999999999936e+01
-4.268071707753856359e+00 -6.810489255367127903e+00 8.609999999999999432e+00
-4.163841841375496067e+00 -6.804478019658137811e+00 8.609999999999999432e+00
-4.059611974997133998e+00 -6.798466783949148606e+00 8.619999999999999218e+00
-3.962222511485286702e+00 -6.773661695824440443e+00 8.619999999999999218e+00
-3.868253249406696348e+00 -6.739459681491872800e+00 8.619999999999999218e+00
-3.777704188761361603e+00 -6.695860740951447454e+00 8.619999999999999218e+00
-3.687155128116027747e+00 -6.652261800411022108e+00 8.619999999999999218e+00
-3.596606067470693446e+00 -6.608662859870595874e+00 8.619999999999999218e+00
-3.512897409691873030e+00 -6.546270066914451569e+00 8.619999999999999218e+00
-3.425768550479795227e+00 -6.493274200166165855e+00 8.609999999999999432e+00
-3.331799288401203984e+00 -6.459072185833599100e+00 8.619999999999999218e+00
-3.234409824889356688e+00 -6.434267097708892713e+00 8.619999999999999218e+00
-3.133600159944252006e+00 -6.418858935792043141e+00 8.619999999999999218e+00
-3.023393568791289177e+00 -6.400030572441938403e+00 8.619999999999999218e+00
-2.926004105279440992e+00 -6.375225484317230240e+00 8.619999999999999218e+00
-2.832034843200850638e+00 -6.341023469984662597e+00 8.619999999999999218e+00
-2.738065581122260284e+00 -6.306821455652096731e+00 8.619999999999999218e+00
-2.647516520476925983e+00 -6.263222515111670496e+00 8.619999999999999218e+00
-2.556967459831592571e+00 -6.219623574571244262e+00 8.619999999999999218e+00
-2.479235526827373803e+00 -6.170047909256216379e+00 8.619999999999999218e+00
-2.398947070481809440e+00 -6.098258190092213482e+00 8.619999999999999218e+00
-2.322078815569502019e+00 -6.017071544720350218e+00 8.619999999999999218e+00
-2.258027688298310132e+00 -5.929908174573885304e+00 8.609999999999999432e+00
-2.181159433386002711e+00 -5.848721529202023817e+00 8.609999999999999432e+00
-2.120528507548067765e+00 -5.752161232847699424e+00 8.609999999999999432e+00
-2.047080454069016842e+00 -5.661577661267978456e+00 8.599999999999999645e+00
-1.956531393423682763e+00 -5.617978720727552222e+00 8.599999999999999645e+00
-1.848881325612065529e+00 -5.621364411226421609e+00 8.599999999999999645e+00
-1.735254533025845314e+00 -5.611932974084174575e+00 8.609999999999999432e+00
-1.634444868080741076e+00 -5.596524812167326779e+00 8.609999999999999432e+00
-1.540475606002150277e+00 -5.562322797834760024e+00 8.609999999999999432e+00
-1.469584075864444950e+00 -5.493953280104014070e+00 8.609999999999999432e+00
-1.392715820952137973e+00 -5.412766634732150806e+00 8.599999999999999645e+00
-1.319267767473087272e+00 -5.322183063152428950e+00 8.599999999999999645e+00
-1.248376237335382388e+00 -5.253813545421682996e+00 8.599999999999999645e+00
-1.157827176690048088e+00 -5.210214604881257650e+00 8.599999999999999645e+00
-1.057017511744944072e+00 -5.194806442964408078e+00 8.599999999999999645e+00
-9.331301148589539185e-01 -5.213565784445739482e+00 8.609999999999999432e+00
-7.827447845988211306e-01 -5.275889555533109565e+00 8.619999999999999218e+00
-2.475677281656567807e-01 -6.647632811541981379e-01 1.303999999999999915e+01
-3.740116483929925018e-01 -6.682179935218420797e-01 1.301999999999999957e+01
-5.064322933949306771e-01 -6.844898335306017767e-01 1.299000000000000021e+01
-6.422731398301255723e-01 -6.913647473315023273e-01 1.296000000000000085e+01
6.076215786182943557e-01 -5.876189387667930530e-01 1.315000000000000036e+01
4.845978598242152713e-01 -6.004705773422959192e-01 1.315000000000000036e+01
-1.245440093715777241e-01 -6.519116425786951607e-01 1.307000000000000028e+01
7.246685726377710690e-01 -5.875844278324058312e-01 1.316000000000000014e+01
5.100922619044370165e-01 -5.933363791673759380e+00 8.689999999999999503e+00
6.143221282827979746e-01 -5.927352555964770175e+00 8.699999999999999289e+00
7.151317932279019907e-01 -5.911944394047921492e+00 8.699999999999999289e+00
8.091010553064927890e-01 -5.877742379715354737e+00 8.699999999999999289e+00
9.030703173850838095e-01 -5.843540365382787982e+00 8.699999999999999289e+00
9.970395794636744968e-01 -5.809338351050221227e+00 8.699999999999999289e+00
1.091008841542265628e+00 -5.775136336717654473e+00 8.699999999999999289e+00
1.188398305054112924e+00 -5.750331248592946309e+00 8.699999999999999289e+00
1.275527164266190727e+00 -5.697335381844661484e+00 8.699999999999999289e+00
1.359235822045011144e+00 -5.634942588888516291e+00 8.699999999999999289e+00
1.456625285556858440e+00 -5.610137500763809015e+00 8.699999999999999289e+00
1.554014749068706402e+00 -5.585332412639101740e+00 8.699999999999999289e+00
1.647984011147297423e+00 -5.551130398306534985e+00 8.699999999999999289e+00
1.735112870359374782e+00 -5.498134531558249272e+00 8.699999999999999289e+00
1.822241729571452362e+00 -5.445138664809965334e+00 8.699999999999999289e+00
1.916210991650043161e+00 -5.410936650477398580e+00 8.699999999999999289e+00
2.006760052295377239e+00 -5.367337709936971457e+00 8.699999999999999289e+00
2.093888911507454598e+00 -5.314341843188686632e+00 8.699999999999999289e+00
2.184437972152788898e+00 -5.270742902648261285e+00 8.699999999999999289e+00
2.271566831364866257e+00 -5.217747035899975572e+00 8.699999999999999289e+00
2.362115892010200113e+00 -5.174148095359550226e+00 8.699999999999999289e+00
2.456085154088791356e+00 -5.139946081026983471e+00 8.699999999999999289e+00
2.546634214734125656e+00 -5.096347140486557237e+00 8.699999999999999289e+00
2.640603476812716455e+00 -5.062145126153989594e+00 8.699999999999999289e+00
2.727732336024793369e+00 -5.009149259405704768e+00 8.699999999999999289e+00
2.805464269029012137e+00 -4.959573594090676885e+00 8.699999999999999289e+00
2.889172926807832553e+00 -4.897180801134532580e+00 8.699999999999999289e+00
2.972881584586653414e+00 -4.834788008178388274e+00 8.699999999999999289e+00
3.056590242365474275e+00 -4.772395215222244858e+00 8.699999999999999289e+00
3.127481772503179602e+00 -4.704025697491498015e+00 8.689999999999999503e+00
3.826310833716856319e+00 1.211753029202327081e+00 1.069999999999999929e+01
3.791935359980123543e+00 -1.003606609051781673e+00 1.182000000000000028e+01
-4.632548386201440493e+00 -7.943475023533618895e+00 1.175999999999999979e+01
-6.671128293624435379e+00 -7.663846768431864298e+00 1.201999999999999957e+01
-3.040908707170218772e+00 -4.948482013168922222e+00 1.166000000000000014e+01
-2.863230787312807557e+00 -4.851887205880211162e+00 1.166000000000000014e+01
-2.769261525234217203e+00 -4.817685191547644408e+00 1.166000000000000014e+01
3.710747809876030701e+00 -3.821302224569557371e+00 8.660000000000000142e+00
3.784195863355081180e+00 -3.730718652989835515e+00 8.650000000000000355e+00
3.861927796359299503e+00 -3.681142987674808076e+00 8.650000000000000355e+00
3.945636454138120364e+00 -3.618750194718663771e+00 8.650000000000000355e+00
4.029345111916940780e+00 -3.556357401762519466e+00 8.650000000000000355e+00
-8.120054021884024475e-01 -1.657693345229102277e+00 1.291000000000000014e+01
-7.577032126558193248e+00 -3.800708375172320963e+00 1.061999999999999922e+01
-4.665402664628444995e+00 -6.625210787354452791e+00 8.060000000000000497e+00
-1.722551794974656048e-01 -4.000153516196134795e+00 1.182000000000000028e+01
4.292113936393123552e+00 -2.290121821436565064e+00 1.021000000000000085e+01
3.219966159670889283e+00 -2.531366810751516816e+00 1.153999999999999915e+01
-2.245555670001067039e+00 -4.765414959153721597e+00 1.152999999999999936e+01
3.713374259818380985e+00 -1.138618288329452444e+00 1.188000000000000078e+01
-4.233593605946191829e+00 -7.840834469601531076e+00 1.246000000000000085e+01
4.841731039115833468e+00 -2.916171203175772497e-01 9.730000000000000426e+00
4.391059106149086233e+00 1.151260147101941023e+00 9.599999999999999645e+00
-2.762454728569860407e+00 -1.824868179513802868e+00 1.264000000000000057e+01
-4.833304037999738512e+00 -8.005902327424150755e+00 1.231000000000000050e+01
4.947757283546790674e+00 -5.829218327612091244e-01 9.439999999999999503e+00
3.701525247804568597e+00 1.379170344759968803e+00 1.069999999999999929e+01
-5.332998556599086726e+00 -5.463481160881958232e+00 1.555000000000000071e+01
1.239253589138159972e+00 -1.475110349027553003e+00 1.313000000000000078e+01
-5.804330646635152746e+00 -6.390598230567460014e+00 1.007000000000000028e+01
1.551943188273242624e+00 -1.457076641900583835e+00 1.308999999999999986e+01
-7.720577053951812374e+00 -3.757178456500668950e+00 9.269999999999999574e+00
4.050799925209397578e+00 -9.838800566753782562e-01 1.148000000000000043e+01
2.203682276180001676e+00 -9.963856811747783260e-01 1.289000000000000057e+01
3.411912475878140949e+00 -1.567594736195262684e+00 1.208999999999999986e+01
1.423633868124535962e+00 -9.291214180766533826e-01 1.313000000000000078e+01
-7.093125390153952381e+00 -4.954802942555165401e+00 1.534999999999999964e+01
-7.510010344733011323e+00 -5.095894879410602485e+00 9.699999999999999289e+00
1.498774766853021578e+00 -7.847128125911233543e-01 1.309999999999999964e+01
-7.543038082564180513e+00 -6.086959543564134378e+00 1.268999999999999950e+01
-4.698187921186674387e+00 -5.541040539214240113e+00 1.544999999999999929e+01
-7.434938467873297263e+00 -4.717392285886117698e+00 1.105000000000000071e+01
-4.264651506320599417e+00 -6.819886181574986495e+00 8.750000000000000000e+00
-4.153581237075725241e+00 -6.832668798281715361e+00 8.750000000000000000e+00
-4.052771572130620115e+00 -6.817260636364865789e+00 8.759999999999999787e+00
-3.945985182410914227e+00 -6.789035346806901572e+00 8.759999999999999787e+00
-3.848595718899066487e+00 -6.764230258682194297e+00 8.759999999999999787e+00
-3.754626456820476132e+00 -6.730028244349627542e+00 8.759999999999999787e+00
-3.660657194741884890e+00 -6.695826230017060787e+00 8.759999999999999787e+00
-3.570108134096550145e+00 -6.652227289476634553e+00 8.759999999999999787e+00
-3.495796402525589652e+00 -6.593254697953747190e+00 8.759999999999999787e+00
-3.415507946180024845e+00 -6.521464978789743405e+00 8.759999999999999787e+00
-3.331799288401203984e+00 -6.459072185833599100e+00 8.759999999999999787e+00
-3.237830026322613630e+00 -6.424870171501032345e+00 8.759999999999999787e+00
-3.137020361377508948e+00 -6.409462009584183662e+00 8.759999999999999787e+00
-3.036210696432405598e+00 -6.394053847667334978e+00 8.759999999999999787e+00
-2.929424306712697934e+00 -6.365828558109370761e+00 8.759999999999999787e+00
-2.835455044634107580e+00 -6.331626543776804894e+00 8.759999999999999787e+00
-2.741485782555517225e+00 -6.297424529444237251e+00 8.759999999999999787e+00
-2.647516520476925983e+00 -6.263222515111670496e+00 8.759999999999999787e+00
-2.560387661264848624e+00 -6.210226648363384783e+00 8.759999999999999787e+00
-2.482655728260630301e+00 -6.160650983048357787e+00 8.759999999999999787e+00
-2.398947070481809440e+00 -6.098258190092213482e+00 8.759999999999999787e+00
-2.325499017002758961e+00 -6.007674618512490738e+00 8.759999999999999787e+00
-2.258027688298310132e+00 -5.929908174573885304e+00 8.750000000000000000e+00
-2.184579634819259208e+00 -5.839324602994164337e+00 8.750000000000000000e+00
-2.127368910414580760e+00 -5.733367380431982241e+00 8.740000000000000213e+00
-2.053920856935530281e+00 -5.642783808852259497e+00 8.740000000000000213e+00
-1.959951594856939483e+00 -5.608581794519692743e+00 8.740000000000000213e+00
-1.855721728478578969e+00 -5.602570558810703538e+00 8.740000000000000213e+00
-1.751491862100217789e+00 -5.596559323101714334e+00 8.750000000000000000e+00
-1.637865069513997796e+00 -5.587127885959468188e+00 8.750000000000000000e+00
-1.556712935076522752e+00 -5.546949146852297119e+00 8.750000000000000000e+00
-1.486685083030728327e+00 -5.446968649064718448e+00 8.750000000000000000e+00
-1.399556223818651413e+00 -5.393972782316433623e+00 8.750000000000000000e+00
-1.312427364606573832e+00 -5.340976915568147909e+00 8.750000000000000000e+00
-1.215037901094725870e+00 -5.316171827443439746e+00 8.750000000000000000e+00
-1.110808034716365134e+00 -5.310160591734450541e+00 8.750000000000000000e+00
-1.009998369771260895e+00 -5.294752429817601858e+00 8.750000000000000000e+00
-9.066321814848110616e-01 -5.257130214051778161e+00 8.750000000000000000e+00
-7.827447845988211306e-01 -5.275889555533109565e+00 8.759999999999999787e+00
1.052731822755315294e+00 -5.533133916310644107e-01 1.315000000000000036e+01
1.166358615341535288e+00 -5.438819544888180424e-01 1.314000000000000057e+01
1.270588481719896023e+00 -5.378707187798285050e-01 1.311999999999999922e+01
1.371398146665000484e+00 -5.224625568629797101e-01 1.309999999999999964e+01
1.570460953213863142e+00 -5.138602868782572441e-01 1.305000000000000071e+01
1.466231086835501962e+00 -5.198715225872467816e-01 1.308000000000000007e+01
8.382953652239910625e-01 -5.781529906901594629e-01 1.316000000000000014e+01
9.485019563769542250e-01 -5.593246273400540591e-01 1.315000000000000036e+01
1.848119370858855248e+00 -4.872933316353402766e-01 1.294999999999999929e+01
5.844039934753986199e-01 -5.874391200150872017e+00 8.830000000000000071e+00
6.852136584205030800e-01 -5.858983038234024221e+00 8.839999999999999858e+00
7.954202495734661316e-01 -5.840154674883917707e+00 8.839999999999999858e+00
8.928097130853136498e-01 -5.815349586759210432e+00 8.839999999999999858e+00
9.901991765971612791e-01 -5.790544498634503157e+00 8.839999999999999858e+00
1.087588640109009130e+00 -5.765739410509794993e+00 8.839999999999999858e+00
1.181557902187599929e+00 -5.731537396177228239e+00 8.839999999999999858e+00
1.268686761399676843e+00 -5.678541529428942525e+00 8.839999999999999858e+00
1.345555016311984264e+00 -5.597354884057080149e+00 8.839999999999999858e+00
1.449784882690345444e+00 -5.591343648348090944e+00 8.839999999999999858e+00
1.550594547635449461e+00 -5.575935486431242261e+00 8.839999999999999858e+00
1.644563809714040481e+00 -5.541733472098675506e+00 8.839999999999999858e+00
1.735112870359374782e+00 -5.498134531558249272e+00 8.839999999999999858e+00
1.822241729571452362e+00 -5.445138664809965334e+00 8.839999999999999858e+00
1.912790790216786441e+00 -5.401539724269539100e+00 8.839999999999999858e+00
1.999919649428863799e+00 -5.348543857521253386e+00 8.839999999999999858e+00
2.087048508640941602e+00 -5.295547990772968561e+00 8.839999999999999858e+00
2.174177367853018517e+00 -5.242552124024683735e+00 8.839999999999999858e+00
2.255329502290493782e+00 -5.202373384917514443e+00 8.839999999999999858e+00
2.342458361502571140e+00 -5.149377518169229617e+00 8.839999999999999858e+00
2.433007422147905441e+00 -5.105778577628802495e+00 8.839999999999999858e+00
2.520136281359983244e+00 -5.052782710880518557e+00 8.839999999999999858e+00
2.610685342005316656e+00 -5.009183770340091435e+00 8.839999999999999858e+00
2.697814201217394459e+00 -4.956187903591807498e+00 8.839999999999999858e+00
2.784943060429471817e+00 -4.903192036843521784e+00 8.839999999999999858e+00
2.872071919641549620e+00 -4.850196170095237846e+00 8.839999999999999858e+00
2.946383651212510557e+00 -4.791223578572349595e+00 8.830000000000000071e+00
3.030092308991331862e+00 -4.728830785616206178e+00 8.830000000000000071e+00
3.110380765336896225e+00 -4.657041066452202394e+00 8.830000000000000071e+00
3.190669221682460144e+00 -4.585251347288199497e+00 8.830000000000000071e+00
2.565670548422784414e+00 -3.014271825326297449e+00 1.155000000000000071e+01
-3.807171871957265363e+00 -2.375382566530580331e+00 1.637999999999999901e+01
1.092150416573735017e+00 -9.539955280701356566e-01 1.316999999999999993e+01
-3.780673938583123395e+00 -2.418946996136619010e+00 1.623000000000000043e+01
-3.709782408445418511e+00 -2.350577478405872611e+00 1.623000000000000043e+01
-3.154466477887664766e+00 -5.192007438350120907e+00 1.152999999999999936e+01
-7.248485723359227251e+00 -5.405095255243653085e+00 1.024000000000000021e+01
3.754277728547681825e+00 -3.677757297175937801e+00 8.789999999999999147e+00
3.844826789193016126e+00 -3.634158356635512455e+00 8.789999999999999147e+00
3.931955648405093484e+00 -3.581162489887226741e+00 8.789999999999999147e+00
4.022504709050427785e+00 -3.537563549346801395e+00 8.789999999999999147e+00
4.093396239188132668e+00 -3.469194031616054552e+00 8.789999999999999147e+00
-5.060832805915045363e+00 -4.193825379122746888e+00 1.560999999999999943e+01
-4.599210049960783309e+00 -8.005833305555375645e+00 1.217999999999999972e+01
-3.866916370287898364e-01 -4.024993115255229625e+00 1.182000000000000028e+01
4.164979797478043366e+00 4.736334658532448394e-02 1.098000000000000043e+01
-7.332332424875596999e+00 -4.999300072121890537e+00 1.105000000000000071e+01
-3.735245013787944046e+00 -5.818422869384134444e+00 1.153999999999999915e+01
3.642518145347293235e+00 1.570529070350407119e+00 1.055000000000000071e+01
-1.614267864092842952e+00 -1.587872558789631405e+00 1.271000000000000085e+01
-7.987698779821937656e+00 -4.748312142522976842e+00 1.253999999999999915e+01
4.767315774741709866e+00 5.512702179655271095e-04 9.730000000000000426e+00
4.859833768111577079e+00 -8.384007074916135505e-01 9.710000000000000853e+00
1.005746286983789428e+00 -3.464978269227430907e+00 1.224000000000000021e+01
-2.962115982522304236e-01 -3.747300186675849965e+00 1.208999999999999986e+01
3.879306700465142033e+00 1.124624169990249722e+00 1.069999999999999929e+01
-7.827363443671520038e+00 -3.785403746058634056e+00 1.171000000000000085e+01
-5.564155496286204539e+00 -3.834289192685917946e+00 1.558000000000000007e+01
8.923964866048975653e-01 -1.516221788095407641e+00 1.314000000000000057e+01
1.343483455516520930e+00 -1.469099113318563354e+00 1.313000000000000078e+01
3.987577965095729482e+00 -9.856074128591998385e-01 1.156000000000000050e+01
2.295095014917246878e+00 -9.843977206911861400e-01 1.284999999999999964e+01
2.997680339585749865e-01 -2.519412456470082162e+00 1.292999999999999972e+01
1.515046606861781164e+00 -9.171334575930611965e-01 1.310999999999999943e+01
-1.043163246607750283e+00 -2.923065247463145333e+00 1.249000000000000021e+01
-7.466411404192583312e+00 -5.186443940055935009e+00 9.699999999999999289e+00
1.407362028115776376e+00 -7.967007730747152072e-01 1.311999999999999922e+01
-5.956131829937391764e+00 -4.423911575111630690e+00 1.561999999999999922e+01
-3.832910564774890005e+00 -4.906852005353028900e+00 1.525000000000000000e+01
-6.997740275033256907e+00 -6.824963812591059664e+00 1.256000000000000050e+01
-4.720886032849301195e+00 -6.794389970030302983e+00 8.869999999999999218e+00
-4.623496569337453899e+00 -6.769584881905596596e+00 8.880000000000000782e+00
-4.264651506320599417e+00 -6.819886181574986495e+00 8.890000000000000568e+00
-4.157001438508982183e+00 -6.823271872073855882e+00 8.900000000000000355e+00
-4.052771572130620115e+00 -6.817260636364865789e+00 8.900000000000000355e+00
-3.945985182410914227e+00 -6.789035346806901572e+00 8.900000000000000355e+00
-3.841755316032553047e+00 -6.783024111097911479e+00 8.900000000000000355e+00
-3.744365852520705751e+00 -6.758219022973205092e+00 8.900000000000000355e+00
-3.653816791875371450e+00 -6.714620082432777970e+00 8.910000000000000142e+00
-3.566687932663293648e+00 -6.661624215684494033e+00 8.900000000000000355e+00
-3.495796402525589652e+00 -6.593254697953747190e+00 8.900000000000000355e+00
-3.415507946180024845e+00 -6.521464978789743405e+00 8.900000000000000355e+00
-3.324958885534690545e+00 -6.477866038249318059e+00 8.900000000000000355e+00
-3.227569422022843248e+00 -6.453060950124609896e+00 8.900000000000000355e+00
-3.133600159944252006e+00 -6.418858935792043141e+00 8.900000000000000355e+00
-3.043051099298918594e+00 -6.375259995251617795e+00 8.900000000000000355e+00
-2.949081837220328239e+00 -6.341057980919050152e+00 8.900000000000000355e+00
-2.855112575141736109e+00 -6.306855966586483397e+00 8.900000000000000355e+00
-2.757723111629888813e+00 -6.282050878461775234e+00 8.900000000000000355e+00
-2.667174050984554512e+00 -6.238451937921349888e+00 8.900000000000000355e+00
-2.580045191772477597e+00 -6.185456071173064174e+00 8.900000000000000355e+00
-2.492916332560400683e+00 -6.132460204424780237e+00 8.900000000000000355e+00
-2.412627876214836320e+00 -6.060670485260775564e+00 8.900000000000000355e+00
-2.345156547510387490e+00 -5.982904041322171018e+00 8.900000000000000355e+00
-2.271708494031337011e+00 -5.892320469742449163e+00 8.890000000000000568e+00
-2.201680641985542586e+00 -5.792339971954869604e+00 8.890000000000000568e+00
-2.137629514714350698e+00 -5.705176601808403802e+00 8.880000000000000782e+00
-2.053920856935530281e+00 -5.642783808852259497e+00 8.880000000000000782e+00
-1.959951594856939483e+00 -5.608581794519692743e+00 8.880000000000000782e+00
-1.859141929911835689e+00 -5.593173632602844947e+00 8.880000000000000782e+00
-1.754912063533474287e+00 -5.587162396893854854e+00 8.890000000000000568e+00
-1.654102398588370271e+00 -5.571754234977006170e+00 8.890000000000000568e+00
-1.566973539376292690e+00 -5.518758368228720457e+00 8.890000000000000568e+00
-1.483264881597471607e+00 -5.456365575272577928e+00 8.890000000000000568e+00
-1.389295619518881253e+00 -5.422163560940010285e+00 8.890000000000000568e+00
-1.291906156007033735e+00 -5.397358472815302122e+00 8.890000000000000568e+00
-1.174859161987557243e+00 -5.397323961880914567e+00 8.900000000000000355e+00
-1.084310101342223165e+00 -5.353725021340489221e+00 8.890000000000000568e+00
-9.937610406968884202e-01 -5.310126080800062986e+00 8.890000000000000568e+00
-9.160291076926705411e-01 -5.260550415485035103e+00 8.890000000000000568e+00
-7.989821136731936058e-01 -5.260515904550647548e+00 8.890000000000000568e+00
-6.614139110541770172e-01 -5.316862950863414206e+00 8.900000000000000355e+00
2.312023467411594257e+00 -4.461473816330983055e-01 1.275999999999999979e+01
2.220610728674349055e+00 -4.581353421166903805e-01 1.280000000000000071e+01
2.125777788503847354e+00 -4.607263763924231981e-01 1.283999999999999986e+01
2.034365049766601707e+00 -4.727143368760153841e-01 1.288000000000000078e+01
1.952349237237215984e+00 -4.812820959263507392e-01 1.291999999999999993e+01
1.756706632121609823e+00 -4.992812921189324626e-01 1.299000000000000021e+01
1.661873691951108123e+00 -5.018723263946653912e-01 1.301999999999999957e+01
2.406856407582095958e+00 -4.435563473573654880e-01 1.272000000000000064e+01
6.715328526874762005e-01 -5.821395333402588079e+00 8.970000000000000639e+00
7.723425176325802166e-01 -5.805987171485738507e+00 8.970000000000000639e+00
8.825491087855439343e-01 -5.787158808135633770e+00 8.980000000000000426e+00
9.833587737306478394e-01 -5.771750646218784198e+00 8.980000000000000426e+00
1.080748237242495247e+00 -5.746945558094076922e+00 8.980000000000000426e+00
1.178137700754342987e+00 -5.722140469969369647e+00 8.980000000000000426e+00
1.265266559966420346e+00 -5.669144603221083045e+00 8.980000000000000426e+00
1.345555016311984264e+00 -5.597354884057080149e+00 8.980000000000000426e+00
1.446364681257088947e+00 -5.581946722140232353e+00 8.980000000000000426e+00
1.547174346202192963e+00 -5.566538560223382781e+00 8.980000000000000426e+00
1.641143608280783983e+00 -5.532336545890816026e+00 8.980000000000000426e+00
1.731692668926117840e+00 -5.488737605350390680e+00 8.980000000000000426e+00
1.818821528138195642e+00 -5.435741738602105855e+00 8.980000000000000426e+00
1.905950387350273001e+00 -5.382745871853821029e+00 8.980000000000000426e+00
1.993079246562350582e+00 -5.329750005105535315e+00 8.980000000000000426e+00
2.070811179566568683e+00 -5.280174339790507432e+00 8.980000000000000426e+00
2.154519837345389544e+00 -5.217781546834363127e+00 8.980000000000000426e+00
2.245068897990723844e+00 -5.174182606293936892e+00 8.980000000000000426e+00
2.332197757202801203e+00 -5.121186739545652955e+00 8.980000000000000426e+00
2.419326616414878561e+00 -5.068190872797366353e+00 8.980000000000000426e+00
2.506455475626956364e+00 -5.015195006049081528e+00 8.980000000000000426e+00
2.590164133405776781e+00 -4.952802213092938111e+00 8.970000000000000639e+00
2.667896066409995104e+00 -4.903226547777909339e+00 8.970000000000000639e+00
2.751604724188815965e+00 -4.840833754821765922e+00 8.970000000000000639e+00
2.838733583400893323e+00 -4.787837888073480208e+00 8.970000000000000639e+00
2.922442241179714184e+00 -4.725445095117335903e+00 8.970000000000000639e+00
3.009571100391791987e+00 -4.672449228369051077e+00 8.970000000000000639e+00
3.093279758170612403e+00 -4.610056435412906772e+00 8.970000000000000639e+00
3.164171288308317287e+00 -4.541686917682160818e+00 8.970000000000000639e+00
3.247879946087138592e+00 -4.479294124726017401e+00 8.960000000000000853e+00
3.328168402432702955e+00 -4.407504405562012728e+00 8.960000000000000853e+00
-3.944671052707508174e+00 -2.553129508256766655e+00 1.623000000000000043e+01
4.407779588304880924e+00 -5.027714201531936489e-01 1.083999999999999986e+01
1.447713321894881666e+00 -1.463087877609573928e+00 1.310999999999999943e+01
-4.992326149178980543e+00 -7.627468755768441966e+00 1.400000000000000000e+01
3.737176721381398448e+00 -3.630772666136643068e+00 8.929999999999999716e+00
3.814908654385616771e+00 -3.581197000821614296e+00 8.929999999999999716e+00
3.918274842672067049e+00 -3.543574785055790599e+00 8.919999999999999929e+00
3.999426977109541426e+00 -3.503396045948621751e+00 8.929999999999999716e+00
4.083135634888362731e+00 -3.441003252992477002e+00 8.929999999999999716e+00
-5.228768690220726434e+00 -5.457469925172967251e+00 1.553999999999999915e+01
-4.898356887100390189e+00 -7.593266741435874323e+00 1.400000000000000000e+01
-2.824617706504288783e-01 -4.018981879546239533e+00 1.182000000000000028e+01
-4.489348568151693364e+00 -6.816535002010503774e+00 1.456000000000000050e+01
5.153787679912951170e-01 -3.579606783643110468e+00 1.224000000000000021e+01
-2.805951041039355331e+00 -4.980023971356981605e+00 1.151999999999999957e+01
-2.576209049662113504e+00 -1.810289184754477754e+00 1.257000000000000028e+01
-4.149884948167370524e+00 -7.778441676645387659e+00 1.246000000000000085e+01
1.132984863434261635e+00 -3.259040548877667476e+00 1.236999999999999922e+01
4.733113760409143111e+00 9.452053229655610345e-02 9.730000000000000426e+00
4.154305061965626322e+00 1.480118053442621706e+00 9.730000000000000426e+00
-7.382633724544988674e+00 -5.358145135138744131e+00 9.839999999999999858e+00
4.913555269214223920e+00 -4.889525706826183260e-01 9.580000000000000071e+00
4.223295776515342936e+00 -6.976193690456635732e-01 1.119999999999999929e+01
-5.372003019204859342e+00 -6.467362952676606547e+00 1.513000000000000078e+01
-6.813947586663693379e+00 -7.183739853739139036e+00 1.160999999999999943e+01
-7.483374367621316914e+00 -5.607647285094547129e+00 1.406000000000000050e+01
4.545313279989510846e+00 -4.420714724464844814e-01 1.056000000000000050e+01
-6.664252475091305250e+00 -4.905123744436976629e+00 1.550000000000000000e+01
3.022216578093201989e+00 -1.198627112616187151e+00 1.247000000000000064e+01
3.924356004982061386e+00 -9.873347690430218648e-01 1.165000000000000036e+01
2.471943767617134746e+00 -9.732389273651181893e-01 1.275000000000000000e+01
-4.195797930776201667e+00 -5.634871757555281135e+00 1.531000000000000050e+01
2.815346157782752989e+00 -8.056835680699276914e-01 1.257000000000000028e+01
6.005732054132271180e-01 -2.761106992664297266e+00 1.281000000000000050e+01
-9.916177438359592422e-01 -9.887842282872851829e-01 1.288000000000000078e+01
1.085275502772834466e+00 -8.181546816349407614e-01 1.316000000000000014e+01
1.189505369151195424e+00 -8.121434459259510019e-01 1.315000000000000036e+01
-6.183385415109831307e+00 -4.442774449396122982e+00 1.560999999999999943e+01
1.423805518064241715e+00 -4.408920258604119624e+00 1.008000000000000007e+01
-7.456357865499137816e+00 -4.512352754562653168e+00 1.063000000000000078e+01
-4.818275496361149379e+00 -6.819195058155012035e+00 9.009999999999999787e+00
-4.717465831416044253e+00 -6.803786896238163351e+00 9.019999999999999574e+00
-4.623496569337453899e+00 -6.769584881905596596e+00 9.019999999999999574e+00
-4.509869776751233239e+00 -6.760153444763349562e+00 9.019999999999999574e+00
-4.398799507506359063e+00 -6.772936061470078428e+00 9.029999999999999361e+00
-7.690555386341253019e+00 -4.161280794372997249e+00 1.376999999999999957e+01
-4.163841841375496067e+00 -6.804478019658137811e+00 9.029999999999999361e+00
-4.063032176430390052e+00 -6.789069857741289127e+00 9.039999999999999147e+00
-3.949405383844171169e+00 -6.779638420599042092e+00 9.039999999999999147e+00
-3.845175517465809989e+00 -6.773627184890052888e+00 9.039999999999999147e+00
-3.751206255387219635e+00 -6.739425170557486133e+00 9.039999999999999147e+00
-3.653816791875371450e+00 -6.714620082432777970e+00 9.039999999999999147e+00
-3.566687932663293648e+00 -6.661624215684494033e+00 9.039999999999999147e+00
-3.479559073451216733e+00 -6.608628348936207431e+00 9.039999999999999147e+00
-3.385589811372625491e+00 -6.574426334603640676e+00 9.039999999999999147e+00
-3.295040750727292078e+00 -6.530827394063215330e+00 9.039999999999999147e+00
-3.204491690081958222e+00 -6.487228453522789984e+00 9.039999999999999147e+00
-3.117362830869880419e+00 -6.434232586774505158e+00 9.039999999999999147e+00
-3.039630897865661652e+00 -6.384656921459475498e+00 9.039999999999999147e+00
-2.959342441520098177e+00 -6.312867202295473490e+00 9.039999999999999147e+00
-2.868793380874762988e+00 -6.269268261755047256e+00 9.039999999999999147e+00
-2.778244320229429132e+00 -6.225669321214621021e+00 9.039999999999999147e+00
-2.687695259584094831e+00 -6.182070380674194787e+00 9.039999999999999147e+00
-2.597146198938760975e+00 -6.138471440133769441e+00 9.039999999999999147e+00
-2.510017339726683616e+00 -6.085475573385484616e+00 9.039999999999999147e+00
-2.439125809588977845e+00 -6.017106055654737773e+00 9.039999999999999147e+00
-2.365677756109928254e+00 -5.926522484075015917e+00 9.029999999999999361e+00
-2.292229702630876886e+00 -5.835938912495294950e+00 9.029999999999999361e+00
-2.221338172493172003e+00 -5.767569394764548107e+00 9.029999999999999361e+00
-2.137629514714350698e+00 -5.705176601808403802e+00 9.019999999999999574e+00
-2.047080454069016842e+00 -5.661577661267978456e+00 9.019999999999999574e+00
-1.959951594856939483e+00 -5.608581794519692743e+00 9.019999999999999574e+00
-1.865982332778349129e+00 -5.574379780187125988e+00 9.019999999999999574e+00
-1.758332264966731229e+00 -5.577765470685995375e+00 9.029999999999999361e+00
-1.654102398588370271e+00 -5.571754234977006170e+00 9.029999999999999361e+00
-1.554156411735177157e+00 -5.524735093003323882e+00 9.029999999999999361e+00
-1.469584075864444950e+00 -5.493953280104014070e+00 9.029999999999999361e+00
-1.362797686144738396e+00 -5.465727990546048076e+00 9.029999999999999361e+00
-1.255147618333120940e+00 -5.469113681044918351e+00 9.039999999999999147e+00
-1.157758154821273866e+00 -5.444308592920210188e+00 9.039999999999999147e+00
-1.074049497042453005e+00 -5.381915799964066771e+00 9.039999999999999147e+00
-9.835004363971184826e-01 -5.338316859423639649e+00 9.039999999999999147e+00
-8.997917786182976219e-01 -5.275924066467496232e+00 9.039999999999999147e+00
-8.058225165397068235e-01 -5.241722052134929477e+00 9.039999999999999147e+00
-6.785149182204603946e-01 -5.269878319824119473e+00 9.039999999999999147e+00
2.488872220111482125e+00 -4.349885883070302439e-01 1.266999999999999993e+01
2.580284958848727328e+00 -4.230006278234381689e-01 1.261999999999999922e+01
2.675117899019229029e+00 -4.204095935477052404e-01 1.258000000000000007e+01
2.757133711548615196e+00 -4.118418344973699963e-01 1.252999999999999936e+01
2.839149524078000919e+00 -4.032740754470346412e-01 1.247000000000000064e+01
2.924585538040643584e+00 -4.041032426045582104e-01 1.241999999999999993e+01
3.006601350570029751e+00 -3.955354835542228553e-01 1.235999999999999943e+01
3.161236049420942607e+00 -3.818201668868088650e-01 1.224000000000000021e+01
3.088617163099415919e+00 -3.869677245038876112e-01 1.230000000000000071e+01
6.510116440879358812e-01 -5.765013776155432978e+00 9.109999999999999432e+00
7.586617118995535591e-01 -5.768399466654302365e+00 9.109999999999999432e+00
8.628915782779147392e-01 -5.762388230945313161e+00 9.109999999999999432e+00
9.696779679976209598e-01 -5.734162941387348056e+00 9.109999999999999432e+00
1.070487632942725753e+00 -5.718754779470500260e+00 9.119999999999999218e+00
1.164456895021316551e+00 -5.684552765137933505e+00 9.119999999999999218e+00
1.258426157099907350e+00 -5.650350750805365863e+00 9.119999999999999218e+00
1.345555016311984264e+00 -5.597354884057080149e+00 9.119999999999999218e+00
1.439524278390575063e+00 -5.563152869724513394e+00 9.119999999999999218e+00
1.533493540469166083e+00 -5.528950855391946639e+00 9.119999999999999218e+00
1.630883003981014046e+00 -5.504145767267239364e+00 9.119999999999999218e+00
1.721432064626347902e+00 -5.460546826726813130e+00 9.119999999999999218e+00
1.811981125271682203e+00 -5.416947886186387784e+00 9.119999999999999218e+00
1.902530185917016281e+00 -5.373348945645962438e+00 9.119999999999999218e+00
1.986238843695836920e+00 -5.310956152689817245e+00 9.119999999999999218e+00
2.063970776700055687e+00 -5.261380487374789361e+00 9.119999999999999218e+00
2.151099635912133046e+00 -5.208384620626503647e+00 9.119999999999999218e+00
2.234808293690953462e+00 -5.145991827670359342e+00 9.119999999999999218e+00
2.321937152903031265e+00 -5.092995960922075405e+00 9.109999999999999432e+00
2.409066012115108180e+00 -5.040000094173788803e+00 9.109999999999999432e+00
2.492774669893929484e+00 -4.977607301217645386e+00 9.109999999999999432e+00
2.567086401464891310e+00 -4.918634709694758023e+00 9.109999999999999432e+00
2.650795059243711727e+00 -4.856241916738613718e+00 9.109999999999999432e+00
2.734503717022532587e+00 -4.793849123782470301e+00 9.109999999999999432e+00
2.818212374801353448e+00 -4.731456330826325996e+00 9.109999999999999432e+00
2.892524106372315273e+00 -4.672483739303437744e+00 9.099999999999999645e+00
2.972812562717879192e+00 -4.600694020139434848e+00 9.099999999999999645e+00
3.056521220496700053e+00 -4.538301227183290543e+00 9.099999999999999645e+00
